-0.00 -24.16 17.80
-0.00 -24.06 17.90
-0.00 -24.14 18.00
-0.00 -24.12 18.11
-0.00 -24.13 18.21
-0.00 -24.13 18.31
-0.00 -24.15 18.42
-0.00 -24.15 18.52
-0.00 -24.16 18.62
-0.00 -24.16 18.73
-0.00 -24.15 18.83
-0.00 -24.16 18.93
-0.00 -24.12 19.04
-0.00 -24.12 19.14
-0.00 -24.16 19.24
-0.00 -24.16 19.35
-0.00 -24.14 19.45
-0.00 -24.07 19.56
-0.00 -24.10 19.66
-0.00 -24.25 19.76
-0.00 -24.26 19.87
-0.00 -24.28 19.97
-0.00 -24.23 20.07
-0.00 -24.21 20.18
-0.00 -24.15 20.28
-0.00 -24.08 20.38
-0.00 -24.07 20.49
-0.00 -24.10 20.59
-0.00 -24.11 20.69
-0.00 -24.18 20.80
-0.00 -24.18 20.90
-0.00 -24.15 21.00
-0.00 -24.13 21.11
-0.00 -24.14 21.21
-0.00 -23.53 21.31
-0.00 -23.07 21.42
-0.00 -22.48 21.52
-0.00 -22.25 21.62
-0.00 -22.38 21.73
-0.00 -22.20 21.83
-0.00 -22.37 21.93
-0.00 -22.68 22.04
-0.00 -22.60 22.14
-0.00 -22.38 22.25
-0.00 -22.38 22.35
-0.00 -22.44 22.45
-0.00 -22.57 22.56
-0.00 -22.63 22.66
-0.00 -22.68 22.76
-0.00 -22.74 22.87
-0.00 -22.68 22.97
-0.00 -22.73 23.07
-0.00 -22.74 23.18
-0.00 -22.62 23.28
-0.00 -22.73 23.38
-0.00 -22.58 23.49
-0.00 -22.39 23.59
-0.00 -22.40 23.69
-0.00 -22.43 23.80
-0.00 -22.55 23.90
-0.00 -22.61 24.00
-0.00 -22.60 24.11
-0.00 -22.50 24.21
-0.00 -22.35 24.31
-0.00 -22.34 24.42
-0.00 -22.24 24.52
-0.00 -22.25 24.62
-0.00 -22.17 24.73
-0.00 -22.13 24.83
-0.00 -22.28 24.94
-0.00 -22.43 25.04
-0.00 -22.54 25.14
-0.00 -22.60 25.25
-0.00 -22.75 25.35
-0.00 -22.87 25.45
-0.00 -24.10 25.56
-0.00 -24.11 25.66
-0.00 -24.12 25.76
-0.00 -24.08 25.87
-0.00 -24.05 25.97
-0.00 -24.06 26.07
-0.00 -24.05 26.18
-0.00 -24.08 26.28
-0.00 -24.05 26.38
-0.00 -24.09 26.49
-0.00 -23.95 26.59
-0.00 -24.03 26.69
-0.00 -24.05 26.80
-0.00 -24.14 26.90
-0.00 -24.13 27.00
-0.00 -24.14 27.11
-0.00 -24.14 27.21
-0.00 -24.14 27.31
-0.00 -24.14 27.42
-0.00 -24.08 27.52
-0.00 -24.17 27.63
-0.00 -24.19 27.73
-0.00 -19.93 38.59
-0.00 -19.89 38.70
-0.00 -19.85 38.80
-0.00 -19.83 38.90
-0.00 -19.86 39.01
-0.00 -19.91 39.11
-0.00 -19.90 39.21
-0.00 -19.91 39.32
-0.00 -19.91 39.42
-0.00 -19.94 39.52
-0.00 -19.89 39.63
-0.00 -19.89 39.73
-0.00 -19.82 39.83
-0.00 -19.81 39.94
-0.00 -19.64 40.04
-0.00 -19.97 40.56
-0.00 -19.78 40.66
-0.00 -19.78 40.77
-0.00 -19.78 40.87
-0.00 -19.81 40.97
-0.00 -19.80 41.08
-0.00 -19.78 41.18
-0.00 -19.79 41.28
-0.00 -19.76 41.39
-0.00 -19.67 41.49
-0.00 -19.63 41.59
-0.00 -19.56 41.70
-0.00 -19.65 41.80
-0.00 -19.64 41.90
-0.00 -19.62 42.01
-0.00 -19.73 42.11
-0.00 -19.72 42.21
-0.00 -19.64 42.32
-0.00 -19.64 42.42
-0.00 -21.05 60.32
-0.00 -21.03 60.42
-0.00 -20.65 60.53
-0.00 -20.74 60.63
-0.00 -20.90 60.73
-0.00 -20.90 60.84
-0.00 -20.91 60.94
-0.00 -20.85 61.04
-0.00 -20.83 61.15
-0.00 -20.85 61.25
-0.00 -20.83 61.36
-0.00 -20.82 61.46
-0.00 -20.80 61.56
-0.00 -20.83 61.67
-0.00 -20.81 61.77
-0.00 -20.73 61.87
-0.00 -20.73 61.98
-0.00 -20.70 62.08
-0.00 -20.73 62.18
-0.00 -20.74 62.29
-0.00 -20.76 62.39
-0.00 -20.83 62.49
-0.00 -20.76 62.60
-0.00 -20.79 62.70
-0.00 -20.81 62.80
-0.00 -20.80 62.91
-0.00 -20.83 63.01
-0.00 -20.94 63.11
-0.00 -20.98 63.22
-0.00 -21.02 63.32
-0.00 -21.11 63.42
-0.00 -21.13 63.53
-0.00 -21.24 63.63
-0.00 -21.40 63.73
-0.00 -21.47 63.84
-0.00 -21.58 63.94
-0.00 -21.66 64.05
-0.00 -21.69 64.15
-0.00 -21.81 64.25
-0.00 -21.90 64.36
-0.00 -21.95 64.46
-0.00 -22.06 64.56
-0.00 -22.15 64.67
-0.00 -22.26 64.77
-0.00 -22.37 64.87
-0.00 -22.47 64.98
-0.00 -22.58 65.08
-0.00 -22.74 65.18
-0.00 -22.76 65.29
-0.00 -22.83 65.39
-0.00 -23.16 65.49
-0.00 -23.18 65.60
-0.00 -23.27 65.70
-0.00 -23.34 65.80
-0.00 -23.65 65.91
-0.00 -23.68 66.01
-0.00 -23.92 66.11
-0.00 -24.09 66.22
-0.00 -24.76 66.32
-0.00 -24.96 66.43
-0.00 -25.12 66.53
-0.00 -25.33 66.63
-0.00 -25.26 66.74
-0.00 -25.26 66.84
-0.00 -25.25 66.94
-0.00 -25.21 67.05
-0.00 -25.22 67.15
-0.00 -25.24 67.25
-0.00 -25.25 67.36
-0.00 -25.22 67.46
-0.00 -25.24 67.56
-0.00 -25.24 67.67
-0.00 -25.31 67.77
-0.00 -25.28 67.87
-0.00 -25.27 67.98
-0.00 -25.23 68.08
-0.00 -25.17 68.18
-0.00 -25.15 68.29
-0.00 -25.16 68.39
-0.00 -25.12 68.49
-0.00 -25.01 68.60
-0.00 -25.03 68.70
-0.00 -25.25 68.80
-0.00 -25.26 68.91
-0.00 -25.24 69.01
-0.00 -25.19 69.12
-0.00 -25.03 69.22
-0.00 -25.02 69.32
-0.00 -25.01 69.43
-0.00 -24.96 69.53
-0.00 -25.04 69.63
-0.00 -25.03 69.74
-0.00 -25.04 69.84
-0.00 -24.98 69.94
-0.00 -25.12 70.05
-0.00 -25.12 70.15
-0.00 -25.13 70.25
-0.00 -25.12 70.36
-0.00 -25.25 70.46
-0.00 -25.23 70.56
-0.00 -25.09 70.67
-0.00 -25.10 70.77
-0.00 -25.17 70.87
-0.00 -25.17 70.98
-0.00 -25.38 71.08
-0.00 -25.37 71.18
-0.00 -25.40 71.29
-0.00 -25.40 71.39
-0.00 -25.28 71.49
-0.00 -25.28 71.60
-0.00 -25.18 71.70
-0.00 -25.19 71.81
-0.00 -25.10 71.91
-0.00 -25.09 72.01
-0.00 -25.09 72.12
-0.00 -24.93 72.22
-0.00 -24.91 72.32
-0.00 -24.93 72.43
-0.00 -25.16 72.53
-0.00 -25.38 72.63
-0.00 -25.48 72.74
-0.00 -25.46 72.84
-0.00 -25.42 72.94
-0.00 -25.31 73.05
-0.00 -25.32 73.15
-0.00 -25.31 73.25
-0.00 -25.23 73.36
-0.00 -25.24 73.46
-0.00 -25.26 73.56
-0.00 -25.24 73.67
-0.00 -24.94 73.77
-0.00 -24.93 73.87
-0.00 -24.94 73.98
-0.00 -24.95 74.08
-0.00 -24.79 74.19
-0.00 -24.80 74.29
-0.00 -24.78 74.39
-0.00 -24.86 74.50
-0.00 -25.07 74.60
-0.00 -25.07 74.70
-0.00 -25.05 74.81
-0.00 -25.03 74.91
-0.00 -25.07 75.01
-0.00 -25.05 75.12
-0.00 -24.98 75.22
-0.00 -24.96 75.32
-0.00 -24.98 75.43
-0.00 -25.00 75.53
-0.00 -24.89 75.63
-0.00 -24.84 75.74
-0.00 -25.14 75.84
-0.00 -25.12 75.94
-0.00 -25.17 76.05
-0.00 -25.14 76.15
-0.00 -25.11 76.25
-0.00 -25.08 76.36
-0.00 -25.11 76.46
-0.00 -25.14 76.56
-0.00 -25.13 76.67
-0.00 -25.16 76.77
-0.00 -24.91 76.88
-0.00 -24.95 76.98
-0.00 -25.15 77.08
-0.00 -25.16 77.19
-0.00 -25.57 77.29
-0.00 -25.58 77.39
-0.00 -25.60 77.50
-0.00 -25.11 77.60
-0.00 -24.38 77.70
-0.00 -24.38 77.81
-0.00 -25.15 77.91
-0.00 -25.16 78.01
-0.00 -25.08 78.12
-0.00 -25.05 78.22
-0.00 -25.05 78.32
-0.00 -25.05 78.43
-0.00 -24.92 78.53
-0.00 -24.91 78.63
-0.00 -24.92 78.74
-0.00 -24.93 78.84
-0.00 -25.12 78.94
-0.00 -25.14 79.05
-0.00 -25.21 79.15
-0.00 -25.22 79.25
-0.00 -25.21 79.36
-0.00 -25.22 79.46
-0.00 -25.28 79.57
-0.00 -25.29 79.67
-0.00 -25.60 79.77
-0.00 -25.59 79.88
-0.00 -25.04 79.98
-0.00 -24.97 80.08
-0.00 -24.93 80.19
-0.00 -24.93 80.29
-0.00 -24.93 80.39
-0.00 -24.94 80.50
-0.00 -25.21 80.60
-0.00 -25.22 80.70
-0.00 -25.04 80.81
-0.00 -25.02 80.91
-0.00 -24.94 81.01
-0.00 -24.93 81.12
-0.00 -24.92 81.22
-0.00 -24.93 81.32
-0.00 -24.93 81.43
-0.00 -24.91 81.53
-0.00 -24.99 81.63
-0.00 -24.96 81.74
-0.00 -24.98 81.84
-0.00 -24.98 81.94
-0.00 -25.05 82.05
-0.00 -25.06 82.15
-0.00 -24.98 82.26
-0.00 -24.98 82.36
-0.00 -24.97 82.46
-0.00 -24.95 82.57
-0.00 -24.98 82.67
-0.00 -24.99 82.77
-0.00 -25.19 82.88
-0.00 -25.20 82.98
-0.00 -25.21 83.08
-0.00 -25.21 83.19
-0.00 -25.33 83.29
-0.00 -25.31 83.39
-0.00 -25.30 83.50
-0.00 -25.32 83.60
-0.00 -25.41 83.70
-0.00 -25.41 83.81
-0.00 -25.51 83.91
-0.00 -25.52 84.01
-0.00 -25.55 84.12
-0.00 -25.54 84.22
-0.00 -25.55 84.32
-0.00 -25.55 84.43
-0.00 -25.53 84.53
-0.00 -25.53 84.64
-0.00 -25.54 84.74
-0.00 -25.51 84.84
-0.00 -25.08 84.95
-0.00 -25.11 85.05
-0.00 -24.65 85.15
-0.00 -24.67 85.26
-0.00 -24.66 85.36
-0.00 -24.67 85.46
-0.00 -24.67 85.57
-0.00 -24.67 85.67
-0.00 -24.65 85.77
-0.00 -24.66 85.88
-0.00 -25.02 85.98
-0.00 -25.05 86.08
-0.00 -25.05 86.19
-0.00 -25.04 86.29
-0.00 -25.05 86.39
-0.00 -25.01 86.50
-0.00 -25.15 87.22
-0.00 -25.14 87.33
-0.00 -25.14 87.43
-0.00 -25.12 87.53
-0.00 -25.03 87.64
-0.00 -25.01 87.74
-0.00 -25.01 87.84
-0.00 -25.01 87.95
-0.00 -25.02 88.05
-0.00 -25.02 88.15
-0.00 -25.29 88.46
-0.00 -25.29 88.57
-0.00 -25.21 88.67
-0.00 -25.22 88.77
-0.00 -25.14 88.88
-0.00 -25.11 88.98
-0.00 -24.94 89.08
-0.00 -25.01 89.19
-0.00 -24.97 89.29
-0.00 -25.04 89.39
-0.00 -25.04 89.50
-0.00 -25.05 89.60
-0.00 -25.01 89.70
-0.00 -24.99 89.81
-0.00 -24.74 89.91
-0.00 -24.73 90.02
-0.00 -24.80 90.12
-0.00 -24.82 90.22
-0.00 -24.88 90.33
-0.00 -24.89 90.43
-0.00 -25.04 93.02
-0.00 -25.05 93.12
-0.00 -25.05 93.22
-0.00 -25.05 93.33
-0.00 -25.02 93.43
-0.00 -24.97 93.53
-0.00 -25.02 93.64
-0.00 -25.04 93.74
-0.00 -25.03 93.84
-0.00 -25.04 93.95
-0.00 -25.05 94.05
-0.00 -25.04 94.15
-0.00 -25.03 94.26
-0.00 -25.02 94.36
-0.00 -24.82 94.46
-0.00 -24.79 94.57
-0.00 -25.20 98.09
-0.00 -25.12 98.19
-0.00 -25.09 98.29
-0.00 -25.10 98.40
-0.00 -25.03 98.50
0.00 0.00 0.00
0.42 -13.27 -92.19
0.42 -13.27 -92.08
0.42 -13.28 -91.98
0.42 -13.29 -91.88
0.41 -13.18 -91.77
0.41 -13.17 -91.67
0.41 -13.03 -91.57
0.41 -12.99 -91.46
0.40 -12.77 -91.36
0.40 -12.68 -91.26
0.39 -12.49 -91.15
0.39 -12.48 -91.05
0.38 -12.13 -90.95
0.38 -12.10 -90.84
0.38 -12.16 -90.74
0.38 -12.13 -90.64
0.38 -12.13 -90.53
0.38 -12.13 -90.43
0.38 -12.04 -90.33
0.38 -12.02 -90.22
0.38 -12.00 -90.12
0.38 -12.12 -90.02
1.16 -36.86 -81.22
1.16 -36.87 -81.12
1.16 -36.97 -81.01
1.16 -36.98 -80.91
1.16 -37.01 -80.81
1.16 -37.00 -80.70
1.16 -36.99 -80.60
1.16 -36.97 -80.50
1.15 -36.55 -80.39
1.15 -36.60 -80.29
1.15 -36.55 -80.19
1.15 -36.52 -80.08
1.15 -36.53 -79.98
1.15 -36.46 -79.88
1.14 -36.38 -79.77
1.14 -36.36 -79.67
1.14 -36.22 -79.57
1.13 -36.11 -79.46
1.13 -35.86 -79.36
1.13 -35.82 -79.25
1.12 -35.57 -79.15
1.12 -35.51 -79.05
1.11 -35.46 -78.94
1.11 -35.44 -78.84
1.11 -35.31 -78.74
1.10 -35.13 -78.63
1.10 -35.07 -78.53
1.10 -35.06 -78.43
1.10 -34.96 -78.32
1.10 -34.88 -78.22
1.10 -34.86 -78.12
1.10 -34.87 -78.01
1.09 -34.78 -77.91
1.09 -34.74 -77.81
1.07 -34.11 -77.70
1.07 -34.08 -77.60
1.06 -33.72 -77.50
1.06 -33.70 -77.39
1.05 -33.54 -77.29
1.05 -33.53 -77.19
1.04 -33.09 -77.08
1.03 -32.88 -76.98
1.03 -32.73 -76.88
1.03 -32.66 -76.77
1.01 -32.23 -76.67
1.01 -32.20 -76.56
1.01 -32.20 -76.46
1.01 -32.19 -76.36
1.01 -32.02 -76.25
1.00 -31.88 -76.15
1.00 -31.81 -76.05
1.00 -31.79 -75.94
0.99 -31.61 -75.84
0.99 -31.53 -75.74
0.98 -31.17 -75.63
0.98 -31.08 -75.53
0.97 -30.94 -75.43
0.97 -30.91 -75.32
0.95 -30.35 -75.22
0.95 -30.31 -75.12
0.96 -30.71 -75.01
0.96 -30.69 -74.91
0.97 -30.74 -74.81
0.96 -30.65 -74.70
0.95 -30.09 -74.60
0.94 -30.03 -74.50
0.93 -29.59 -74.39
0.93 -29.50 -74.29
0.92 -29.34 -74.19
0.92 -29.34 -74.08
0.92 -29.23 -73.98
0.92 -29.24 -73.87
0.92 -29.28 -73.77
0.92 -29.27 -73.67
0.92 -29.23 -73.56
0.91 -29.03 -73.46
0.91 -28.94 -73.36
0.91 -28.85 -73.25
0.90 -28.80 -73.15
0.90 -28.80 -73.05
0.90 -28.64 -72.94
0.90 -28.58 -72.84
0.90 -28.50 -72.74
0.89 -28.42 -72.63
0.88 -28.11 -72.53
0.88 -28.12 -72.43
0.88 -28.09 -72.32
0.88 -28.08 -72.22
0.87 -27.84 -72.12
0.88 -27.85 -72.01
0.87 -27.66 -71.91
0.40 -12.85 -62.80
0.40 -12.87 -62.70
0.44 -13.85 -62.60
0.44 -13.88 -62.49
0.45 -14.25 -62.39
0.46 -14.54 -62.29
0.47 -14.82 -62.18
0.47 -14.95 -62.08
0.48 -15.31 -61.98
0.49 -15.54 -61.87
0.49 -15.69 -61.77
0.50 -15.87 -61.67
0.50 -16.01 -61.56
0.51 -16.22 -61.46
0.52 -16.39 -61.36
0.52 -16.55 -61.25
0.53 -16.72 -61.15
0.53 -16.83 -61.04
0.53 -17.00 -60.94
0.54 -17.11 -60.84
0.54 -17.33 -60.73
0.55 -17.35 -60.63
0.55 -17.56 -60.53
0.56 -17.79 -60.42
0.56 -17.88 -60.32
0.57 -18.06 -60.22
0.57 -18.12 -60.11
0.57 -18.16 -60.01
0.58 -18.34 -59.91
0.58 -18.43 -59.80
0.58 -18.61 -59.70
0.59 -18.70 -59.60
0.59 -18.90 -59.49
0.60 -18.94 -59.39
0.60 -19.07 -59.29
0.60 -19.15 -59.18
0.61 -19.28 -59.08
0.61 -19.40 -58.98
0.61 -19.57 -58.87
0.62 -19.74 -58.77
0.62 -19.82 -58.67
0.62 -19.88 -58.56
0.63 -20.07 -58.46
0.65 -20.69 -58.35
0.66 -20.88 -58.25
0.66 -20.93 -58.15
0.66 -21.04 -58.04
0.66 -21.08 -57.94
0.66 -21.15 -57.84
0.66 -21.14 -57.73
0.67 -21.17 -57.63
0.66 -21.09 -57.53
0.66 -21.09 -57.42
0.66 -21.11 -57.32
0.66 -21.14 -57.22
0.66 -21.15 -57.11
0.67 -21.27 -57.01
0.67 -21.32 -56.91
0.67 -21.29 -56.80
0.67 -21.35 -56.70
0.67 -21.33 -56.60
0.67 -21.35 -56.49
0.67 -21.35 -56.39
0.67 -21.40 -56.29
0.67 -21.37 -56.18
0.67 -21.36 -56.08
0.67 -21.40 -55.98
0.67 -21.43 -55.87
0.67 -21.40 -55.77
0.67 -21.38 -55.66
0.67 -21.38 -55.56
0.67 -21.38 -55.46
0.67 -21.25 -55.35
0.67 -21.19 -55.25
0.67 -21.17 -55.15
0.66 -21.10 -55.04
0.66 -21.11 -54.94
0.66 -21.10 -54.84
0.66 -21.03 -54.73
0.66 -21.04 -54.63
0.66 -21.06 -54.53
0.66 -21.09 -54.42
0.66 -21.04 -54.32
0.66 -21.05 -54.22
0.66 -21.03 -54.11
0.66 -20.90 -54.01
0.66 -20.86 -53.91
0.66 -20.88 -53.80
0.65 -20.80 -53.70
0.65 -20.83 -53.60
0.66 -20.86 -53.49
0.66 -20.89 -53.39
0.65 -20.83 -53.28
0.66 -20.85 -53.18
0.65 -20.76 -53.08
0.65 -20.75 -52.97
0.65 -20.69 -52.87
0.65 -20.72 -52.77
0.65 -20.71 -52.66
0.65 -20.72 -52.56
0.65 -20.69 -52.46
0.65 -20.70 -52.35
0.65 -20.64 -52.25
0.65 -20.62 -52.15
0.65 -20.66 -52.04
0.65 -20.65 -51.94
0.65 -20.75 -51.84
0.65 -20.76 -51.73
0.65 -20.78 -51.63
0.65 -20.75 -51.53
0.65 -20.83 -51.42
0.65 -20.80 -51.32
0.65 -20.73 -51.22
0.65 -20.71 -51.11
0.64 -20.51 -51.01
0.65 -20.61 -50.91
0.65 -20.60 -50.80
0.65 -20.60 -50.70
0.64 -20.51 -50.59
0.65 -20.55 -50.49
0.65 -20.58 -50.39
0.65 -20.56 -50.28
0.64 -20.51 -50.18
0.64 -20.46 -50.08
0.64 -20.41 -49.97
0.64 -20.38 -49.87
0.64 -20.39 -49.77
0.64 -20.37 -49.66
0.64 -20.34 -49.56
0.64 -20.34 -49.46
0.64 -20.35 -49.35
0.64 -20.35 -49.25
0.64 -20.37 -49.15
0.64 -20.36 -49.04
0.64 -20.35 -48.94
0.64 -20.28 -48.84
0.64 -20.30 -48.73
0.64 -20.30 -48.63
0.64 -20.36 -48.53
0.64 -20.35 -48.42
0.64 -20.36 -48.32
0.64 -20.37 -48.22
0.64 -20.26 -48.11
0.64 -20.21 -48.01
0.63 -20.19 -47.90
0.63 -20.16 -47.80
0.63 -20.13 -47.70
0.63 -20.03 -47.59
0.63 -20.04 -47.49
0.63 -20.04 -47.39
0.63 -20.00 -24.73
0.63 -20.02 -24.62
0.62 -19.84 -24.52
0.62 -19.65 -24.42
0.61 -19.56 -24.31
0.61 -19.55 -24.21
0.62 -19.57 -24.11
0.62 -19.60 -24.00
0.64 -20.40 -23.28
0.64 -20.40 -23.18
0.63 -20.10 -23.07
0.63 -20.04 -22.97
0.63 -20.06 -22.87
0.63 -20.07 -22.76
0.63 -20.04 -22.66
0.63 -19.98 -22.56
0.63 -19.97 -22.45
0.63 -20.00 -22.35
0.63 -20.00 -22.25
0.63 -20.03 -22.14
0.63 -20.02 -22.04
0.63 -19.94 -21.93
0.63 -20.03 -21.83
0.63 -20.07 -21.73
0.63 -20.08 -21.62
0.63 -20.08 -21.52
0.63 -20.08 -21.42
0.63 -20.08 -21.31
0.63 -20.13 -21.21
0.63 -20.20 -21.11
0.63 -20.19 -21.00
0.64 -20.23 -20.80
0.63 -20.20 -20.69
0.64 -20.22 -20.59
0.64 -20.22 -20.49
0.64 -20.22 -20.38
0.63 -20.20 -20.28
0.64 -20.22 -20.18
0.64 -20.22 -20.07
0.64 -20.31 -19.97
0.64 -20.34 -19.87
0.64 -20.37 -19.76
0.64 -20.43 -19.66
0.64 -20.47 -19.56
0.64 -20.48 -19.45
0.64 -20.48 -19.35
0.64 -20.49 -19.24
0.64 -20.39 -19.14
0.64 -20.37 -19.04
0.64 -20.27 -18.93
0.64 -20.25 -18.83
0.64 -20.25 -18.73
0.64 -20.25 -18.62
0.63 -20.00 -12.31
0.63 -20.01 -12.21
0.63 -20.02 -12.11
0.63 -20.04 -12.00
0.63 -19.99 -11.90
0.63 -19.98 -11.80
0.63 -19.97 -11.69
0.63 -20.05 -11.59
0.64 -20.27 -11.48
0.64 -20.28 -11.38
0.64 -20.28 -11.28
0.64 -20.40 -11.17
0.63 -20.00 -4.86
0.63 -20.00 -4.76
0.63 -20.00 -4.66
0.63 -20.00 -4.55
0.63 -20.02 -4.45
0.63 -20.03 -3.21
0.63 -20.01 -3.10
0.63 -20.03 -3.00
0.63 -20.11 -2.90
0.63 -20.20 -2.79
0.63 -20.16 -2.69
0.63 -20.15 -2.59
0.63 -20.13 -2.48
0.63 -20.16 -2.38
0.63 -20.14 -2.28
0.63 -20.10 -2.17
0.63 -19.98 -2.07
0.63 -19.97 -1.97
0.63 -19.91 -1.86
0.62 -19.85 -1.76
0.62 -19.86 -1.66
0.62 -19.80 -1.55
0.62 -19.82 -1.45
0.62 -19.86 -1.35
0.62 -19.88 -1.24
0.63 -19.98 -1.14
0.63 -20.07 -1.03
0.63 -20.08 -0.93
0.64 -20.35 -0.62
0.64 -20.36 -0.52
0.64 -20.36 -0.41
0.64 -20.38 -0.31
0.64 -20.37 -0.21
0.62 -19.64 1.14
0.62 -19.64 1.24
0.62 -19.67 1.35
0.61 -19.43 8.48
0.61 -19.53 8.59
0.61 -19.56 8.69
0.61 -19.56 8.79
0.61 -19.56 8.90
0.61 -19.55 9.00
0.61 -19.55 9.10
0.61 -19.33 9.21
0.61 -19.30 9.31
0.60 -19.13 9.42
0.60 -19.09 9.52
0.60 -19.18 9.62
0.61 -19.31 9.73
0.60 -19.23 9.83
0.60 -19.25 9.93
0.60 -19.17 10.04
0.60 -19.17 10.14
0.60 -19.17 10.24
0.60 -19.24 10.35
0.60 -19.25 10.45
0.60 -19.23 10.55
0.76 -24.12 13.45
0.76 -24.09 13.55
0.76 -24.14 13.66
0.76 -24.11 13.76
0.76 -24.17 13.86
0.76 -24.20 13.97
0.76 -24.20 14.07
0.76 -24.20 14.17
0.76 -24.17 14.28
0.76 -24.22 14.38
0.76 -24.21 14.49
0.76 -24.28 14.59
0.77 -24.35 14.69
0.76 -24.32 14.80
0.76 -24.29 14.90
0.76 -24.31 15.00
0.76 -24.33 15.11
0.76 -24.30 15.21
0.76 -24.26 15.31
0.76 -24.25 15.42
0.76 -24.29 15.52
0.76 -24.23 15.62
0.76 -24.23 15.73
0.76 -24.24 15.83
0.76 -24.24 15.93
0.76 -24.25 16.04
0.76 -24.25 16.14
0.76 -24.29 16.24
0.76 -24.34 16.35
0.77 -24.40 16.45
0.77 -24.45 16.55
0.77 -24.50 16.66
0.77 -24.50 16.76
0.77 -24.47 16.86
0.77 -24.45 16.97
0.77 -24.44 17.07
0.77 -24.39 17.18
0.77 -24.40 17.28
0.76 -24.34 17.38
0.76 -24.31 17.49
0.76 -24.27 17.59
0.76 -24.31 17.69
0.76 -24.34 17.80
0.77 -24.38 17.90
0.77 -24.38 18.00
0.77 -24.36 18.11
0.77 -24.41 18.21
0.77 -24.40 18.31
0.77 -24.43 18.42
0.77 -24.40 18.52
0.77 -24.39 18.62
0.77 -24.43 18.73
0.77 -24.41 18.83
0.77 -24.43 18.93
0.77 -24.45 19.04
0.77 -24.45 19.14
0.77 -24.42 19.24
0.77 -24.47 19.35
0.77 -24.45 19.45
0.77 -24.46 19.56
0.77 -24.46 19.66
0.77 -24.50 19.76
0.77 -24.51 19.87
0.77 -24.54 19.97
0.77 -24.52 20.07
0.77 -24.55 20.18
0.77 -24.58 20.28
0.77 -24.54 20.38
0.77 -24.54 20.49
0.77 -24.53 20.59
0.77 -24.52 20.69
0.77 -24.46 20.80
0.77 -24.49 20.90
0.77 -24.55 21.00
0.77 -24.55 21.11
0.75 -23.89 21.21
0.75 -23.78 21.31
0.74 -23.59 21.42
0.73 -23.37 21.52
0.73 -23.27 21.62
0.73 -23.17 21.73
0.73 -23.17 21.83
0.73 -23.12 21.93
0.73 -23.11 22.04
0.73 -23.22 22.14
0.74 -23.41 22.25
0.77 -24.56 22.35
0.77 -24.57 22.45
0.77 -24.55 22.56
0.77 -24.49 22.66
0.77 -24.46 22.76
0.77 -24.47 22.87
0.77 -24.49 22.97
0.77 -24.56 23.07
0.77 -24.60 23.18
0.77 -24.61 23.28
0.77 -24.62 23.38
0.77 -24.66 23.49
0.77 -24.65 23.59
0.77 -24.66 23.69
0.77 -24.64 23.80
0.77 -24.64 23.90
0.77 -24.64 24.00
0.77 -24.58 24.11
0.77 -24.57 24.21
0.77 -24.44 24.31
0.77 -24.39 24.42
0.77 -24.39 24.52
0.76 -24.29 24.62
0.77 -24.40 24.73
0.77 -24.42 24.83
0.77 -24.50 24.94
0.77 -24.59 25.04
0.77 -24.52 25.14
0.77 -24.51 25.25
0.77 -24.61 25.35
0.77 -24.60 25.45
0.77 -24.57 25.56
0.77 -24.58 25.66
0.78 -24.69 25.76
0.78 -24.66 25.87
0.77 -24.60 25.97
0.77 -24.58 26.07
0.77 -24.54 26.18
0.77 -24.49 26.28
0.77 -24.54 26.38
0.77 -24.59 26.49
0.77 -24.54 26.59
0.77 -24.51 26.69
0.77 -24.50 26.80
0.77 -24.48 26.90
0.77 -24.50 27.00
0.77 -24.53 27.11
0.77 -24.54 27.21
0.77 -24.56 27.31
0.77 -24.64 27.42
0.78 -24.67 27.52
0.78 -24.72 27.63
0.78 -24.71 27.73
0.78 -24.75 27.83
0.78 -24.72 27.94
0.78 -24.67 28.04
0.78 -24.67 28.14
0.78 -24.76 28.25
0.78 -24.76 28.35
0.78 -24.78 28.45
0.78 -24.70 28.56
0.56 -17.82 60.11
0.56 -17.84 60.22
0.56 -17.84 60.32
0.56 -17.92 60.42
0.56 -17.91 60.53
0.56 -17.92 60.63
0.56 -17.91 60.73
0.67 -21.23 60.94
0.67 -21.22 61.04
0.67 -21.24 61.15
0.67 -21.22 61.25
0.67 -21.33 61.36
0.67 -21.18 61.46
0.66 -21.05 61.56
0.65 -20.81 61.67
0.65 -20.63 61.77
0.64 -20.34 61.87
0.64 -20.25 61.98
0.64 -20.31 62.08
0.64 -20.35 62.18
0.64 -20.36 62.29
0.64 -20.41 62.39
0.64 -20.35 62.49
0.64 -20.42 62.60
0.64 -20.44 62.70
0.64 -20.49 62.80
0.65 -20.54 62.91
0.65 -20.69 63.01
0.65 -20.79 63.11
0.65 -20.82 63.22
0.65 -20.82 63.32
0.66 -20.95 63.42
0.66 -21.02 63.53
0.67 -21.18 63.63
0.67 -21.29 63.73
0.67 -21.39 63.84
0.67 -21.44 63.94
0.68 -21.53 64.05
0.68 -21.54 64.15
0.68 -21.60 64.25
0.68 -21.75 64.36
0.69 -21.81 64.46
0.69 -21.83 64.56
0.69 -21.92 64.67
0.69 -22.05 64.77
0.70 -22.13 64.87
0.70 -22.23 64.98
0.70 -22.37 65.08
0.71 -22.53 65.18
0.71 -22.58 65.29
0.72 -22.76 65.39
0.73 -23.16 65.49
0.73 -23.25 65.60
0.74 -23.43 65.70
0.74 -23.57 65.80
0.74 -23.69 65.91
0.75 -23.80 66.01
0.75 -23.93 66.11
0.75 -24.00 66.22
0.78 -24.96 66.32
0.79 -25.13 66.43
0.79 -25.15 66.53
0.80 -25.33 66.63
0.80 -25.39 66.74
0.80 -25.47 66.84
0.80 -25.46 66.94
0.80 -25.38 67.05
0.80 -25.43 67.15
0.80 -25.44 67.25
0.80 -25.44 67.36
0.80 -25.43 67.46
0.80 -25.31 67.56
0.80 -25.30 67.67
0.79 -25.22 67.77
0.79 -25.20 67.87
0.79 -25.06 67.98
0.79 -25.20 68.08
0.79 -25.17 68.18
0.79 -25.22 68.29
0.80 -25.35 68.39
0.80 -25.38 68.49
0.80 -25.35 68.60
0.80 -25.36 68.70
0.79 -25.12 68.80
0.79 -25.09 68.91
0.78 -24.68 69.01
0.78 -24.70 69.12
0.78 -24.96 69.22
0.78 -24.96 69.32
0.79 -25.03 69.43
0.79 -25.04 69.53
0.79 -25.09 69.63
0.79 -25.10 69.74
0.79 -25.23 69.84
0.79 -25.21 69.94
0.79 -25.22 70.05
0.79 -25.21 70.15
0.79 -25.15 70.25
0.79 -25.15 70.36
0.79 -25.16 70.46
0.79 -25.18 70.56
0.80 -25.56 70.67
0.80 -25.54 70.77
0.80 -25.40 71.08
0.80 -25.37 71.18
0.80 -25.46 71.29
0.80 -25.44 71.39
0.79 -25.16 71.49
0.79 -25.15 71.60
0.79 -25.16 71.70
0.79 -25.22 71.81
0.79 -25.28 71.91
0.79 -25.27 72.01
0.81 -25.67 72.12
0.81 -25.65 72.22
0.80 -25.61 72.32
0.80 -25.60 72.43
0.78 -24.96 72.53
0.79 -25.01 72.63
0.79 -25.23 72.74
0.79 -25.25 72.84
0.80 -25.54 72.94
0.80 -25.53 73.05
0.80 -25.56 73.15
0.80 -25.58 73.25
0.80 -25.56 73.36
0.80 -25.55 73.46
0.80 -25.55 73.56
0.80 -25.55 73.67
0.80 -25.49 73.77
0.80 -25.50 73.87
0.79 -25.06 73.98
0.79 -25.06 74.08
0.77 -24.54 74.39
0.77 -24.55 74.50
0.79 -25.22 74.60
0.79 -25.21 74.70
0.79 -25.23 74.81
0.79 -25.26 74.91
0.79 -25.30 75.01
0.79 -25.23 75.12
0.79 -25.15 75.22
0.79 -25.16 75.32
0.79 -25.28 75.43
0.79 -25.26 75.53
0.79 -25.28 75.63
0.79 -25.27 75.74
0.80 -25.42 75.84
0.80 -25.42 75.94
0.80 -25.36 76.05
0.80 -25.34 76.15
0.80 -25.33 76.25
0.80 -25.33 76.36
0.80 -25.35 76.46
0.80 -25.33 76.56
0.79 -25.29 76.67
0.79 -25.27 76.77
0.79 -25.28 76.88
0.79 -25.27 76.98
0.79 -25.00 77.08
0.79 -25.02 77.19
0.78 -24.95 77.29
0.78 -24.96 77.39
0.77 -24.56 77.50
0.79 -25.20 77.60
0.79 -25.20 77.70
0.79 -25.18 77.81
0.79 -25.19 77.91
0.79 -25.21 78.01
0.78 -24.86 78.12
0.78 -24.81 78.22
0.78 -24.77 78.32
0.78 -24.76 78.43
0.78 -24.78 78.53
0.78 -24.80 78.63
0.78 -24.87 78.74
0.78 -24.82 78.84
0.78 -24.87 78.94
0.78 -24.86 79.05
0.78 -24.84 79.15
0.78 -24.87 79.25
0.79 -25.09 79.36
0.79 -25.12 79.46
0.79 -25.02 79.57
0.79 -25.00 79.67
0.79 -25.00 79.77
0.79 -25.04 79.88
0.78 -24.70 79.98
0.78 -24.78 80.08
0.77 -24.57 80.19
0.77 -24.63 80.29
0.78 -24.79 80.39
0.78 -24.82 80.50
0.78 -24.90 80.60
0.78 -24.82 80.70
0.78 -24.90 80.81
0.78 -24.90 80.91
0.79 -25.25 81.01
0.79 -25.27 81.12
0.80 -25.34 81.22
0.80 -25.35 81.32
0.79 -25.28 81.43
0.79 -25.30 81.53
0.79 -25.21 81.63
0.79 -25.24 81.74
0.79 -25.22 81.84
0.79 -25.21 81.94
0.79 -25.09 82.05
0.80 -25.55 82.15
0.81 -25.70 83.60
0.81 -25.71 83.70
0.81 -25.68 83.81
0.77 -24.51 84.84
0.77 -24.53 84.95
0.77 -24.55 85.05
0.79 -25.03 85.15
0.79 -24.99 85.26
0.79 -24.99 85.36
0.78 -24.97 85.46
0.77 -24.36 85.57
0.77 -24.37 85.67
0.77 -24.38 85.77
0.77 -24.39 85.88
0.77 -24.65 85.98
0.77 -24.65 86.08
0.77 -24.65 86.19
0.77 -24.65 86.29
0.77 -24.56 86.39
0.77 -24.55 86.50
0.77 -24.54 86.60
0.77 -24.55 86.70
0.78 -24.70 87.01
0.78 -24.70 87.12
0.78 -24.70 87.22
0.78 -24.70 87.33
0.78 -24.80 87.43
0.78 -24.81 87.53
0.78 -24.80 87.64
0.78 -24.81 87.74
0.79 -25.10 87.84
0.79 -25.12 87.95
0.79 -25.28 88.05
0.79 -25.28 88.15
0.79 -25.20 88.26
0.79 -25.21 88.36
0.79 -25.22 88.67
0.79 -25.22 88.77
0.79 -25.11 88.88
0.79 -25.10 88.98
0.79 -25.09 89.08
0.79 -25.10 89.19
0.79 -25.10 89.29
0.79 -25.09 89.39
0.79 -25.04 89.50
0.79 -25.02 89.60
0.79 -25.04 89.70
0.79 -25.02 89.81
0.80 -25.37 89.91
0.80 -25.35 90.02
0.78 -24.72 90.33
0.78 -24.73 90.43
0.78 -24.76 90.53
0.78 -24.73 90.64
0.78 -24.96 90.74
0.79 -25.00 90.84
0.79 -25.15 90.95
0.79 -25.17 91.05
0.78 -24.97 91.15
0.79 -24.99 91.26
0.78 -24.98 91.36
0.79 -25.04 91.46
0.79 -25.00 91.57
0.79 -25.04 91.67
0.79 -25.04 91.77
0.79 -25.02 91.88
0.78 -24.87 92.60
0.78 -24.94 92.71
0.78 -24.93 92.81
0.78 -24.93 92.91
0.79 -25.01 93.02
0.79 -25.02 93.12
0.79 -25.02 93.22
0.78 -24.71 93.84
0.78 -24.72 93.95
0.79 -25.05 94.05
0.79 -25.06 94.15
0.79 -25.04 94.26
0.78 -24.95 94.36
0.78 -24.93 94.46
0.78 -24.91 94.57
0.78 -24.94 94.67
0.78 -24.93 94.77
0.00 0.00 0.00
0.83 -13.24 -92.19
0.83 -13.17 -92.08
0.83 -13.16 -91.98
0.82 -13.08 -91.88
0.82 -13.06 -91.77
0.82 -13.01 -91.67
0.81 -12.92 -91.57
0.81 -12.87 -91.46
0.80 -12.77 -91.36
0.80 -12.72 -91.26
0.79 -12.63 -91.15
0.79 -12.61 -91.05
0.79 -12.62 -90.95
0.79 -12.61 -90.84
0.77 -12.20 -90.74
0.76 -12.06 -90.64
0.75 -11.94 -90.53
0.75 -11.96 -90.43
0.75 -11.95 -90.33
0.75 -11.93 -90.22
0.75 -11.91 -90.12
0.74 -11.78 -90.02
0.74 -11.76 -89.91
2.28 -36.19 -81.12
2.30 -36.62 -81.01
2.30 -36.63 -80.91
2.30 -36.63 -80.81
2.30 -36.55 -80.70
2.30 -36.53 -80.60
2.29 -36.43 -80.50
2.29 -36.42 -80.39
2.29 -36.44 -80.29
2.28 -36.31 -80.19
2.28 -36.26 -80.08
2.28 -36.28 -79.98
2.28 -36.28 -79.88
2.27 -36.04 -79.77
2.26 -35.96 -79.67
2.25 -35.83 -79.57
2.25 -35.81 -79.46
2.24 -35.59 -79.36
2.24 -35.53 -79.25
2.23 -35.52 -79.15
2.23 -35.49 -79.05
2.23 -35.40 -78.94
2.22 -35.28 -78.84
2.21 -35.16 -78.74
2.21 -35.14 -78.63
2.18 -34.72 -78.53
2.16 -34.40 -78.43
2.15 -34.22 -78.32
2.15 -34.22 -78.22
2.15 -34.14 -78.12
2.15 -34.12 -78.01
2.14 -34.04 -77.91
2.14 -34.01 -77.81
2.13 -33.81 -77.70
2.13 -33.81 -77.60
2.06 -32.67 -77.50
2.05 -32.64 -77.39
2.05 -32.57 -77.29
2.05 -32.56 -77.19
2.05 -32.51 -77.08
2.04 -32.50 -76.98
2.06 -32.72 -76.88
2.06 -32.70 -76.77
2.01 -31.93 -76.67
2.00 -31.85 -76.56
2.01 -31.93 -76.46
2.01 -32.01 -76.36
2.01 -31.88 -76.25
2.00 -31.84 -76.15
1.99 -31.61 -76.05
1.99 -31.58 -75.94
1.97 -31.35 -75.84
1.97 -31.35 -75.74
1.96 -31.12 -75.63
1.96 -31.11 -75.53
1.95 -30.93 -75.43
1.95 -30.92 -75.32
1.94 -30.89 -75.22
1.94 -30.76 -75.12
1.92 -30.58 -75.01
1.92 -30.58 -74.91
1.92 -30.54 -74.81
1.91 -30.29 -74.70
1.89 -30.05 -74.60
1.89 -30.06 -74.50
1.87 -29.77 -74.39
1.87 -29.77 -74.29
1.87 -29.80 -74.19
1.87 -29.80 -74.08
1.88 -29.82 -73.98
1.87 -29.74 -73.87
1.86 -29.58 -73.77
1.86 -29.57 -73.67
1.85 -29.33 -73.56
1.84 -29.31 -73.46
1.83 -29.15 -73.36
1.83 -29.09 -73.25
1.81 -28.73 -73.15
1.81 -28.71 -73.05
1.79 -28.44 -72.94
1.78 -28.36 -72.84
1.78 -28.30 -72.74
1.78 -28.31 -72.63
1.73 -27.48 -72.53
1.73 -27.50 -72.43
1.70 -27.03 -72.32
0.87 -13.85 -62.80
0.89 -14.12 -62.70
0.90 -14.29 -62.60
0.91 -14.47 -62.49
0.92 -14.61 -62.39
0.92 -14.69 -62.29
0.94 -14.86 -62.18
0.94 -14.99 -62.08
0.95 -15.12 -61.98
0.95 -15.17 -61.87
0.97 -15.34 -61.77
0.97 -15.40 -61.67
0.98 -15.58 -61.56
0.99 -15.70 -61.46
0.99 -15.77 -61.36
1.00 -15.89 -61.25
1.01 -15.99 -61.15
1.01 -16.12 -61.04
1.02 -16.23 -60.94
1.03 -16.37 -60.84
1.04 -16.50 -60.73
1.04 -16.56 -60.63
1.05 -16.71 -60.53
1.05 -16.76 -60.42
1.06 -16.91 -60.32
1.07 -16.97 -60.22
1.08 -17.15 -60.11
1.08 -17.20 -60.01
1.09 -17.30 -59.91
1.09 -17.39 -59.80
1.10 -17.49 -59.70
1.11 -17.62 -59.60
1.13 -17.92 -59.49
1.13 -17.97 -59.39
1.15 -18.23 -59.29
1.15 -18.35 -59.18
1.17 -18.58 -59.08
1.17 -18.66 -58.98
1.20 -18.99 -58.87
1.20 -19.08 -58.77
1.20 -19.14 -58.67
1.21 -19.23 -58.56
1.21 -19.29 -58.46
1.22 -19.33 -58.35
1.22 -19.41 -58.25
1.23 -19.52 -58.15
1.24 -19.72 -58.04
1.24 -19.71 -57.94
1.25 -19.80 -57.84
1.25 -19.82 -57.73
1.28 -20.38 -57.63
1.29 -20.45 -57.53
1.30 -20.67 -57.42
1.30 -20.73 -57.32
1.31 -20.82 -57.22
1.31 -20.79 -57.11
1.32 -20.91 -57.01
1.32 -21.05 -56.91
1.32 -21.04 -56.80
1.33 -21.06 -56.70
1.32 -21.06 -56.60
1.32 -21.05 -56.49
1.33 -21.07 -56.39
1.33 -21.08 -56.29
1.33 -21.14 -56.18
1.34 -21.25 -56.08
1.34 -21.30 -55.98
1.34 -21.30 -55.87
1.34 -21.34 -55.77
1.34 -21.33 -55.66
1.34 -21.30 -55.56
1.34 -21.28 -55.46
1.34 -21.30 -55.35
1.34 -21.29 -55.25
1.34 -21.24 -55.15
1.33 -21.19 -55.04
1.33 -21.16 -54.94
1.33 -21.13 -54.84
1.33 -21.07 -54.73
1.32 -21.01 -54.63
1.32 -21.00 -54.53
1.32 -20.95 -54.42
1.32 -20.94 -54.32
1.32 -20.91 -54.22
1.31 -20.89 -54.11
1.31 -20.89 -54.01
1.30 -20.74 -53.91
1.30 -20.68 -53.80
1.30 -20.68 -53.70
1.30 -20.64 -53.60
1.30 -20.63 -53.49
1.29 -20.57 -53.39
1.29 -20.54 -53.28
1.29 -20.53 -53.18
1.29 -20.48 -53.08
1.29 -20.53 -52.97
1.29 -20.53 -52.87
1.29 -20.55 -52.77
1.29 -20.54 -52.66
1.29 -20.52 -52.56
1.29 -20.54 -52.46
1.29 -20.50 -52.35
1.28 -20.38 -52.25
1.28 -20.35 -52.15
1.28 -20.28 -52.04
1.27 -20.25 -51.94
1.27 -20.20 -51.84
1.27 -20.17 -51.73
1.26 -20.09 -51.63
1.26 -19.98 -51.53
1.25 -19.94 -51.42
1.25 -19.93 -51.32
1.25 -19.85 -51.22
1.25 -19.79 -51.11
1.24 -19.75 -51.01
1.24 -19.68 -50.91
1.23 -19.61 -50.80
1.23 -19.59 -50.70
1.23 -19.56 -50.59
1.22 -19.46 -50.49
1.21 -19.29 -50.39
1.21 -19.21 -50.28
1.21 -19.18 -50.18
1.20 -19.08 -50.08
1.35 -21.44 -49.97
1.35 -21.40 -49.87
1.26 -20.09 -49.77
1.26 -20.07 -49.66
1.26 -20.07 -49.56
1.26 -20.06 -49.46
1.26 -19.98 -49.35
1.25 -19.88 -49.25
1.20 -19.09 -49.15
1.21 -19.19 -49.04
1.21 -19.29 -17.49
1.22 -19.32 -17.38
1.22 -19.33 -17.28
1.23 -19.62 6.10
1.23 -19.63 6.21
1.23 -19.51 6.31
1.23 -19.49 6.41
1.22 -19.47 6.52
1.22 -19.46 6.62
1.22 -19.42 6.73
1.23 -19.54 6.83
1.23 -19.57 6.93
1.23 -19.58 7.04
1.24 -19.67 7.14
1.23 -19.60 7.24
1.24 -19.68 7.35
1.24 -19.65 7.45
1.24 -19.72 7.55
1.24 -19.76 7.66
1.24 -19.76 7.76
1.24 -19.78 7.86
1.24 -19.74 7.97
1.24 -19.70 8.07
1.24 -19.66 8.17
1.24 -19.66 8.28
1.24 -19.71 8.38
1.24 -19.71 8.48
1.24 -19.71 8.59
1.24 -19.71 8.69
1.24 -19.71 8.79
1.24 -19.68 8.90
1.23 -19.63 9.00
1.23 -19.61 9.10
1.23 -19.61 9.21
1.24 -19.64 9.31
1.23 -19.62 9.42
1.24 -19.67 9.52
1.24 -19.68 9.62
1.24 -19.73 9.73
1.24 -19.79 9.83
1.25 -19.83 9.93
1.25 -19.93 10.04
1.25 -19.93 10.14
1.25 -19.91 10.24
1.25 -19.86 10.35
1.25 -19.80 10.45
1.25 -19.79 10.55
1.24 -19.74 10.66
1.25 -19.79 10.76
1.41 -22.34 11.48
1.42 -22.54 11.59
1.42 -22.65 11.69
1.43 -22.79 11.80
1.54 -24.43 11.90
1.54 -24.45 12.00
1.54 -24.44 12.11
1.53 -24.38 12.21
1.53 -24.37 12.31
1.53 -24.35 12.42
1.53 -24.38 12.52
1.54 -24.42 12.62
1.53 -24.37 12.73
1.53 -24.39 12.83
1.53 -24.33 12.93
1.53 -24.31 13.04
1.53 -24.34 13.14
1.54 -24.42 13.24
1.54 -24.44 13.35
1.54 -24.43 13.45
1.54 -24.46 13.55
1.54 -24.51 13.66
1.55 -24.58 13.76
1.55 -24.60 13.86
1.55 -24.59 13.97
1.55 -24.58 14.07
1.55 -24.56 14.17
1.54 -24.49 14.28
1.54 -24.49 14.38
1.54 -24.47 14.49
1.54 -24.45 14.59
1.54 -24.48 14.69
1.54 -24.52 14.80
1.54 -24.49 14.90
1.54 -24.49 15.00
1.53 -24.40 15.11
1.54 -24.44 15.21
1.54 -24.41 15.31
1.54 -24.48 15.42
1.54 -24.49 15.52
1.54 -24.48 15.62
1.54 -24.47 15.73
1.54 -24.49 15.83
1.54 -24.54 15.93
1.55 -24.60 16.04
1.55 -24.61 16.14
1.55 -24.66 16.24
1.55 -24.63 16.35
1.55 -24.64 16.45
1.55 -24.61 16.55
1.55 -24.64 16.66
1.55 -24.68 16.76
1.55 -24.64 16.86
1.55 -24.61 16.97
1.55 -24.64 17.07
1.55 -24.65 17.18
1.55 -24.63 17.28
1.55 -24.60 17.38
1.55 -24.65 17.49
1.56 -24.73 17.59
1.56 -24.74 17.69
1.56 -24.72 17.80
1.56 -24.73 17.90
1.55 -24.71 18.00
1.56 -24.73 18.11
1.56 -24.72 18.21
1.56 -24.74 18.31
1.56 -24.76 18.42
1.56 -24.72 18.52
1.55 -24.70 18.62
1.56 -24.80 18.73
1.56 -24.74 18.83
1.56 -24.76 18.93
1.56 -24.77 19.04
1.56 -24.82 19.14
1.56 -24.87 19.24
1.57 -24.88 19.35
1.56 -24.86 19.45
1.56 -24.87 19.56
1.56 -24.86 19.66
1.57 -24.89 19.76
1.57 -24.95 19.87
1.57 -24.88 19.97
1.57 -24.89 20.07
1.57 -24.91 20.18
1.57 -24.97 20.28
1.51 -23.96 20.38
1.51 -23.92 20.49
1.49 -23.73 20.59
1.49 -23.69 20.69
1.48 -23.59 20.80
1.48 -23.56 20.90
1.48 -23.58 21.00
1.57 -24.90 21.11
1.56 -24.86 21.21
1.56 -24.87 21.31
1.57 -24.90 21.42
1.57 -24.90 21.52
1.57 -24.90 21.62
1.57 -24.92 21.73
1.57 -24.92 21.83
1.57 -24.91 21.93
1.57 -24.93 22.04
1.57 -24.95 22.14
1.57 -24.99 22.25
1.57 -25.02 22.35
1.57 -24.96 22.45
1.57 -24.90 22.56
1.57 -24.93 22.66
1.57 -24.96 22.76
1.57 -24.97 22.87
1.57 -24.97 22.97
1.57 -24.96 23.07
1.57 -24.91 23.18
1.57 -24.98 23.28
1.57 -24.95 23.38
1.57 -24.99 23.49
1.57 -24.97 23.59
1.57 -25.00 23.69
1.57 -24.98 23.80
1.57 -24.96 23.90
1.57 -24.91 24.00
1.57 -24.89 24.11
1.57 -24.88 24.21
1.56 -24.87 24.31
1.56 -24.85 24.42
1.56 -24.83 24.52
1.56 -24.83 24.62
1.57 -24.96 24.73
1.57 -25.02 24.83
1.57 -25.02 24.94
1.57 -25.02 25.04
1.57 -25.01 25.14
1.57 -25.03 25.25
1.57 -25.02 25.35
1.58 -25.10 25.45
1.58 -25.09 25.56
1.58 -25.10 25.66
1.58 -25.04 25.76
1.58 -25.04 25.87
1.57 -25.03 25.97
1.58 -25.04 26.07
1.58 -25.11 26.18
1.58 -25.05 26.28
1.58 -25.05 26.38
1.57 -25.00 26.49
1.57 -24.96 26.59
1.57 -24.95 26.69
1.58 -25.08 26.80
1.58 -25.08 26.90
1.58 -25.07 27.00
1.58 -25.05 27.11
1.58 -25.06 27.21
1.58 -25.05 27.31
1.58 -25.07 27.42
1.58 -25.11 27.52
1.58 -25.07 27.63
1.58 -25.08 27.73
1.58 -25.07 27.83
1.19 -18.90 59.49
1.19 -18.92 59.60
1.19 -18.86 59.70
1.19 -18.91 59.80
1.19 -18.91 59.91
1.19 -18.96 60.01
1.19 -18.97 60.11
1.19 -18.96 60.22
1.19 -18.90 60.32
1.18 -18.83 60.42
1.18 -18.80 60.53
1.18 -18.78 60.63
1.18 -18.74 60.73
1.18 -18.72 60.84
1.17 -18.67 60.94
1.18 -18.71 61.04
1.18 -18.71 61.15
1.18 -18.70 61.25
1.19 -18.92 61.36
1.20 -19.12 61.46
1.21 -19.20 61.56
1.22 -19.35 61.67
1.22 -19.42 61.77
1.23 -19.52 61.87
1.24 -19.66 61.98
1.24 -19.72 62.08
1.25 -19.91 62.18
1.26 -19.99 62.29
1.26 -20.02 62.39
1.26 -20.05 62.49
1.27 -20.12 62.60
1.27 -20.19 62.70
1.28 -20.32 62.80
1.28 -20.35 62.91
1.28 -20.39 63.01
1.29 -20.44 63.11
1.29 -20.54 63.22
1.30 -20.59 63.32
1.30 -20.65 63.42
1.30 -20.73 63.53
1.31 -20.87 63.63
1.32 -20.93 63.73
1.32 -21.06 63.84
1.33 -21.13 63.94
1.34 -21.30 64.05
1.34 -21.37 64.15
1.35 -21.41 64.25
1.35 -21.49 64.36
1.35 -21.52 64.46
1.36 -21.59 64.56
1.36 -21.65 64.67
1.37 -21.75 64.77
1.37 -21.83 64.87
1.38 -21.98 64.98
1.39 -22.13 65.08
1.40 -22.22 65.18
1.41 -22.46 65.29
1.42 -22.59 65.39
1.43 -22.70 65.49
1.44 -22.87 65.60
1.46 -23.18 65.70
1.46 -23.21 65.80
1.47 -23.44 65.91
1.49 -23.67 66.01
1.51 -24.07 66.11
1.52 -24.09 66.22
1.52 -24.11 66.32
1.55 -24.71 66.43
1.59 -25.20 66.53
1.60 -25.36 66.63
1.60 -25.46 66.74
1.61 -25.53 66.84
1.60 -25.40 66.94
1.59 -25.35 67.05
1.59 -25.34 67.15
1.59 -25.33 67.25
1.59 -25.30 67.36
1.59 -25.29 67.46
1.59 -25.23 67.56
1.59 -25.22 67.67
1.58 -25.08 67.77
1.58 -25.08 67.87
1.57 -24.95 67.98
1.57 -24.96 68.08
1.60 -25.47 68.18
1.61 -25.54 68.29
1.61 -25.60 68.39
1.61 -25.59 68.49
1.61 -25.53 68.60
1.61 -25.61 68.70
1.61 -25.62 68.80
1.61 -25.61 68.91
1.61 -25.60 69.01
1.61 -25.57 69.12
1.61 -25.58 69.22
1.61 -25.56 69.32
1.61 -25.56 69.43
1.61 -25.54 69.53
1.61 -25.56 69.63
1.61 -25.57 69.74
1.61 -25.60 69.84
1.61 -25.62 69.94
1.61 -25.62 70.05
1.61 -25.60 70.15
1.61 -25.62 70.25
1.61 -25.60 70.36
1.63 -25.86 71.08
1.62 -25.76 71.18
1.62 -25.77 71.29
1.62 -25.75 71.39
1.62 -25.71 71.49
1.61 -25.54 71.60
1.61 -25.53 71.70
1.61 -25.55 71.81
1.61 -25.53 72.12
1.60 -25.51 72.22
1.61 -25.51 72.32
1.61 -25.51 72.43
1.61 -25.57 72.53
1.61 -25.58 72.63
1.61 -25.62 72.74
1.61 -25.59 72.84
1.64 -26.07 72.94
1.64 -26.06 73.05
1.65 -26.26 73.15
1.65 -26.24 73.25
1.65 -26.26 73.36
1.65 -26.28 73.46
1.62 -25.70 73.56
1.62 -25.69 73.67
1.62 -25.70 73.77
1.62 -25.70 73.87
1.60 -25.42 73.98
1.60 -25.42 74.08
1.60 -25.44 74.19
1.60 -25.44 74.29
1.57 -25.01 74.39
1.57 -25.00 74.50
1.58 -25.13 74.60
1.58 -25.14 74.70
1.65 -26.18 74.81
1.65 -26.17 74.91
1.64 -26.09 75.01
1.64 -26.08 75.12
1.63 -25.92 75.22
1.63 -25.91 75.32
1.63 -25.91 75.43
1.63 -25.89 75.53
1.60 -25.41 75.63
1.60 -25.45 75.74
1.57 -25.00 75.84
1.57 -24.90 75.94
1.57 -24.89 76.05
1.57 -24.89 76.15
1.63 -25.98 76.25
1.63 -25.96 76.36
1.62 -25.69 76.46
1.62 -25.69 76.56
1.61 -25.63 76.67
1.61 -25.61 76.77
1.61 -25.62 76.88
1.60 -25.44 76.98
1.60 -25.36 77.08
1.59 -25.34 77.19
1.60 -25.40 77.29
1.60 -25.42 77.39
1.60 -25.45 77.50
1.60 -25.47 77.60
1.60 -25.50 77.70
1.60 -25.49 77.81
1.60 -25.51 77.91
1.60 -25.49 78.01
1.61 -25.56 78.12
1.61 -25.55 78.22
1.61 -25.65 78.32
1.61 -25.65 78.43
1.61 -25.64 78.53
1.60 -25.47 78.63
1.60 -25.44 78.74
1.60 -25.42 78.84
1.63 -25.87 78.94
1.63 -25.88 79.05
1.62 -25.79 79.15
1.62 -25.77 79.25
1.62 -25.72 79.36
1.62 -25.70 79.46
1.62 -25.71 79.57
1.62 -25.72 79.67
1.62 -25.81 79.77
1.63 -25.96 79.88
1.56 -24.86 81.22
1.57 -24.88 81.32
1.57 -24.96 81.43
1.57 -24.96 81.53
1.57 -24.97 81.63
1.57 -24.98 81.74
1.57 -24.88 81.84
1.57 -24.88 81.94
1.59 -25.34 82.88
1.59 -25.35 82.98
1.60 -25.41 83.08
1.60 -25.41 83.19
1.62 -25.68 83.29
1.62 -25.68 83.39
1.57 -24.89 84.95
1.57 -24.89 85.05
1.56 -24.82 85.15
1.56 -24.83 85.26
1.57 -24.91 85.36
1.57 -24.91 85.46
1.57 -24.98 85.57
1.57 -25.00 85.67
1.59 -25.20 85.77
1.59 -25.22 85.88
1.59 -25.28 85.98
1.59 -25.29 86.08
1.59 -25.27 86.19
1.59 -25.24 86.29
1.60 -25.39 86.39
1.60 -25.38 86.50
1.59 -25.25 86.60
1.59 -25.23 86.70
1.58 -25.11 86.81
1.58 -25.10 86.91
1.59 -25.25 87.01
1.59 -25.26 87.12
1.59 -25.28 87.22
1.59 -25.23 87.33
1.59 -25.22 87.43
1.59 -25.23 87.53
1.59 -25.21 87.64
1.59 -25.21 87.74
1.59 -25.22 87.84
1.59 -25.24 87.95
1.59 -25.21 88.05
1.59 -25.22 88.15
1.58 -25.19 88.26
1.59 -25.25 88.36
1.59 -25.26 88.46
1.59 -25.28 88.57
1.58 -25.04 89.08
1.58 -25.04 89.19
1.58 -25.11 89.29
1.58 -25.09 89.39
1.59 -25.31 89.50
1.59 -25.29 89.60
1.59 -25.30 89.70
1.59 -25.23 89.81
1.60 -25.50 89.91
1.60 -25.49 90.02
1.61 -25.51 90.12
1.60 -25.50 90.22
1.57 -25.02 90.53
1.57 -25.03 90.64
1.57 -25.02 90.74
1.57 -25.03 90.84
1.57 -24.95 90.95
1.57 -24.95 91.05
1.56 -24.86 91.15
1.56 -24.87 91.26
1.59 -25.23 91.77
1.59 -25.22 91.88
1.58 -25.19 91.98
1.59 -25.23 92.08
1.59 -25.22 92.19
1.59 -25.21 92.29
1.59 -25.19 92.40
1.58 -25.19 92.50
1.58 -25.17 92.60
1.58 -25.18 92.71
1.58 -25.17 92.81
1.58 -25.16 92.91
1.58 -25.17 93.02
1.58 -25.18 93.12
1.58 -25.11 93.22
1.58 -25.03 93.33
1.57 -24.97 93.43
1.58 -25.11 93.53
1.57 -25.01 93.64
1.57 -25.01 93.74
1.57 -25.02 93.84
1.57 -25.03 93.95
1.58 -25.17 96.33
1.58 -25.18 96.43
1.58 -25.16 96.53
1.58 -25.15 96.64
0.00 0.00 0.00
1.25 -13.18 -91.98
1.24 -13.16 -91.88
1.24 -13.10 -91.77
1.24 -13.13 -91.67
1.23 -12.98 -91.57
1.22 -12.91 -91.46
1.20 -12.75 -91.36
1.19 -12.61 -91.26
1.19 -12.60 -91.15
1.19 -12.60 -91.05
1.17 -12.42 -90.95
1.17 -12.40 -90.84
1.16 -12.29 -90.74
1.15 -12.13 -90.64
1.13 -11.97 -90.53
1.13 -11.99 -90.43
1.13 -11.94 -90.33
1.13 -11.92 -90.22
1.14 -12.04 -90.12
1.14 -12.05 -90.02
3.41 -36.11 -81.01
3.42 -36.19 -80.91
3.44 -36.36 -80.81
3.44 -36.37 -80.70
3.44 -36.37 -80.60
3.43 -36.32 -80.50
3.44 -36.40 -80.39
3.44 -36.41 -80.29
3.43 -36.23 -80.19
3.42 -36.16 -80.08
3.42 -36.15 -79.98
3.42 -36.14 -79.88
3.41 -36.09 -79.77
3.40 -36.01 -79.67
3.40 -35.95 -79.57
3.40 -35.93 -79.46
3.38 -35.75 -79.36
3.38 -35.71 -79.25
3.36 -35.58 -79.15
3.35 -35.39 -79.05
3.33 -35.23 -78.94
3.30 -34.93 -78.84
3.30 -34.88 -78.74
3.30 -34.88 -78.63
3.28 -34.71 -78.53
3.27 -34.62 -78.43
3.25 -34.34 -78.32
3.24 -34.27 -78.22
3.22 -34.07 -78.12
3.21 -34.00 -78.01
3.20 -33.90 -77.91
3.20 -33.89 -77.81
3.19 -33.79 -77.70
3.19 -33.79 -77.60
3.17 -33.56 -77.50
3.16 -33.38 -77.39
3.15 -33.29 -77.29
3.15 -33.29 -77.19
3.14 -33.21 -77.08
3.14 -33.21 -76.98
3.12 -32.96 -76.88
3.11 -32.93 -76.77
3.08 -32.54 -76.67
3.07 -32.49 -76.56
3.05 -32.22 -76.46
3.04 -32.19 -76.36
3.01 -31.89 -76.25
3.01 -31.88 -76.15
2.99 -31.66 -76.05
2.99 -31.62 -75.94
2.98 -31.47 -75.84
2.95 -31.24 -75.74
2.95 -31.25 -75.63
2.95 -31.24 -75.53
2.94 -31.08 -75.43
2.93 -31.00 -75.32
2.93 -30.99 -75.22
2.91 -30.83 -75.12
2.91 -30.75 -75.01
2.90 -30.72 -74.91
2.88 -30.51 -74.81
2.87 -30.41 -74.70
2.86 -30.20 -74.60
2.85 -30.18 -74.50
2.83 -29.94 -74.39
2.82 -29.86 -74.29
2.82 -29.80 -74.19
2.81 -29.76 -74.08
2.81 -29.69 -73.98
2.80 -29.57 -73.87
2.73 -28.93 -73.77
2.73 -28.88 -73.67
2.71 -28.72 -73.56
2.72 -28.75 -73.46
2.71 -28.69 -73.36
2.71 -28.67 -73.25
2.70 -28.54 -73.15
2.70 -28.54 -73.05
2.68 -28.37 -72.94
2.68 -28.37 -72.84
2.67 -28.23 -72.74
2.67 -28.23 -72.63
2.63 -27.80 -72.53
2.63 -27.87 -72.43
2.63 -27.84 -72.32
2.63 -27.86 -72.22
2.65 -28.04 -72.12
1.39 -14.67 -62.08
1.40 -14.79 -61.98
1.40 -14.80 -61.87
1.43 -15.11 -61.77
1.44 -15.25 -61.67
1.47 -15.58 -61.56
1.48 -15.61 -61.46
1.48 -15.64 -61.36
1.48 -15.65 -61.25
1.47 -15.51 -61.15
1.47 -15.54 -61.04
1.51 -16.00 -60.94
1.51 -16.02 -60.84
1.53 -16.20 -60.73
1.55 -16.39 -60.63
1.57 -16.64 -60.53
1.57 -16.66 -60.42
1.59 -16.81 -60.32
1.67 -17.62 -60.22
1.69 -17.92 -60.11
1.70 -17.96 -60.01
1.71 -18.13 -59.91
1.72 -18.18 -59.80
1.73 -18.27 -59.70
1.73 -18.30 -59.60
1.78 -18.83 -59.49
1.78 -18.85 -59.39
1.78 -18.87 -59.29
1.79 -18.89 -59.18
1.73 -18.32 -59.08
1.74 -18.45 -58.98
1.75 -18.52 -58.87
1.83 -19.37 -58.77
1.84 -19.51 -58.67
1.84 -19.51 -58.56
1.85 -19.52 -58.46
1.85 -19.53 -58.35
1.85 -19.54 -58.25
1.86 -19.67 -58.15
1.86 -19.64 -58.04
1.86 -19.66 -57.94
1.86 -19.65 -57.84
1.86 -19.68 -57.73
1.87 -19.74 -57.63
1.87 -19.74 -57.53
1.94 -20.53 -57.42
1.95 -20.64 -57.32
1.96 -20.71 -57.22
1.97 -20.83 -57.11
1.97 -20.86 -57.01
1.97 -20.88 -56.91
1.97 -20.88 -56.80
1.97 -20.87 -56.70
1.98 -20.91 -56.60
1.98 -20.91 -56.49
1.98 -20.89 -56.39
1.97 -20.89 -56.29
1.98 -20.91 -56.18
1.98 -20.94 -56.08
1.98 -20.97 -55.98
1.99 -21.00 -55.87
1.99 -21.02 -55.77
1.98 -20.98 -55.66
1.98 -20.97 -55.56
1.98 -20.98 -55.46
1.98 -20.99 -55.35
1.98 -20.98 -55.25
1.98 -20.95 -55.15
1.98 -20.95 -55.04
1.98 -20.90 -54.94
1.98 -20.90 -54.84
1.98 -20.94 -54.73
1.98 -20.92 -54.63
1.98 -20.98 -54.53
1.98 -20.95 -54.42
1.98 -20.92 -54.32
1.97 -20.88 -54.22
1.97 -20.80 -54.11
1.96 -20.70 -54.01
1.95 -20.64 -53.91
1.94 -20.57 -53.80
1.94 -20.51 -53.70
1.94 -20.48 -53.60
1.93 -20.39 -53.49
1.93 -20.41 -53.39
1.93 -20.39 -53.28
1.93 -20.42 -53.18
1.93 -20.46 -53.08
1.94 -20.49 -52.97
1.93 -20.47 -52.87
1.94 -20.51 -52.77
1.94 -20.50 -52.66
1.94 -20.49 -52.56
1.94 -20.48 -52.46
1.93 -20.40 -52.35
1.93 -20.38 -52.25
1.92 -20.36 -52.15
1.93 -20.39 -52.04
1.93 -20.38 -51.94
1.92 -20.33 -51.84
1.92 -20.28 -51.73
1.92 -20.31 -51.63
1.92 -20.29 -51.53
1.91 -20.24 -51.42
1.91 -20.19 -51.32
1.91 -20.21 -51.22
1.92 -20.27 -51.11
1.91 -20.23 -51.01
1.91 -20.16 -50.91
1.91 -20.20 -50.80
1.91 -20.19 -50.70
1.91 -20.16 -50.59
1.91 -20.17 -50.49
1.90 -20.09 -50.39
1.89 -19.99 -50.28
1.89 -19.96 -50.18
1.89 -19.98 -50.08
1.89 -19.98 -49.97
1.89 -19.99 -49.87
1.88 -19.90 -49.77
1.88 -19.90 -49.66
1.87 -19.83 -49.56
1.87 -19.83 -49.46
1.88 -19.85 -49.35
1.87 -19.82 -49.25
1.87 -19.81 -49.15
1.87 -19.77 -49.04
1.87 -19.82 -48.94
1.87 -19.82 -48.84
1.87 -19.74 -48.73
1.87 -19.74 -48.63
1.87 -19.74 -48.53
1.87 -19.74 -48.42
1.86 -19.73 -48.32
1.86 -19.73 -48.22
1.86 -19.71 -48.11
1.88 -19.88 -1.14
1.88 -19.88 -1.03
1.88 -19.88 -0.93
1.88 -19.88 -0.83
2.32 -24.52 13.76
2.32 -24.58 13.86
2.33 -24.60 13.97
2.33 -24.60 14.07
2.33 -24.70 14.17
2.33 -24.69 14.28
2.33 -24.66 14.38
2.32 -24.57 14.49
2.33 -24.61 14.59
2.32 -24.59 14.69
2.33 -24.60 14.80
2.32 -24.59 14.90
2.32 -24.59 15.00
2.32 -24.59 15.11
2.32 -24.53 15.21
2.32 -24.55 15.31
2.32 -24.56 15.42
2.32 -24.55 15.52
2.13 -22.51 15.62
2.11 -22.35 15.73
2.08 -22.06 15.83
2.08 -22.02 15.93
2.09 -22.14 16.04
2.11 -22.36 16.14
2.11 -22.35 16.24
2.13 -22.50 16.35
2.11 -22.36 16.45
2.10 -22.23 16.55
2.11 -22.33 16.66
2.13 -22.50 16.76
2.15 -22.74 16.86
2.18 -23.05 16.97
2.22 -23.49 17.07
2.34 -24.78 17.18
2.34 -24.77 17.28
2.34 -24.72 17.38
2.34 -24.73 17.49
2.34 -24.71 17.59
2.34 -24.75 17.69
2.34 -24.78 17.80
2.34 -24.79 17.90
2.34 -24.79 18.00
2.35 -24.86 18.11
2.35 -24.87 18.21
2.22 -23.53 18.31
2.23 -23.56 18.42
2.21 -23.43 18.52
2.22 -23.53 18.62
2.22 -23.53 18.73
2.24 -23.68 18.83
2.23 -23.60 18.93
2.23 -23.59 19.04
2.23 -23.64 19.14
2.24 -23.71 19.24
2.24 -23.66 19.35
2.24 -23.66 19.45
2.24 -23.67 19.56
2.24 -23.65 19.66
2.23 -23.63 19.76
2.23 -23.63 19.87
2.23 -23.60 19.97
2.22 -23.52 20.07
2.22 -23.51 20.18
2.23 -23.63 20.28
2.23 -23.63 20.38
2.24 -23.74 20.49
2.24 -23.68 20.59
2.24 -23.74 20.69
2.24 -23.66 20.80
2.24 -23.67 20.90
2.26 -23.87 21.00
2.27 -23.98 21.11
2.35 -24.84 21.21
2.35 -24.85 21.31
2.35 -24.83 21.42
2.35 -24.82 21.52
2.34 -24.76 21.62
2.35 -24.82 21.73
2.35 -24.87 21.83
2.35 -24.91 21.93
2.36 -24.96 22.04
2.36 -24.96 22.14
2.36 -24.96 22.25
2.36 -24.96 22.35
2.36 -24.95 22.45
2.36 -24.95 22.56
2.36 -24.97 22.66
2.36 -24.97 22.76
2.36 -24.94 22.87
2.36 -24.94 22.97
2.36 -24.91 23.07
2.36 -24.95 23.18
2.37 -25.11 23.28
2.38 -25.13 23.38
2.37 -25.12 23.49
2.37 -25.04 23.59
2.36 -24.98 23.69
2.36 -24.95 23.80
2.36 -24.98 23.90
2.37 -25.05 24.00
2.37 -25.11 24.11
2.38 -25.16 24.21
2.39 -25.25 24.31
2.39 -25.30 24.42
2.40 -25.36 24.52
2.40 -25.39 24.62
2.42 -25.65 24.73
2.43 -25.72 24.83
2.44 -25.80 24.94
2.44 -25.79 25.04
1.84 -19.47 59.60
1.83 -19.39 59.70
1.83 -19.34 59.80
1.83 -19.40 59.91
1.83 -19.37 60.01
1.83 -19.32 60.11
1.83 -19.31 60.22
1.83 -19.32 60.32
1.83 -19.31 60.42
1.81 -19.18 60.53
1.81 -19.15 60.63
2.03 -21.47 60.73
2.03 -21.47 60.84
2.01 -21.26 60.94
1.96 -20.72 61.04
1.80 -19.09 61.15
1.81 -19.16 61.25
1.81 -19.11 61.36
1.80 -19.09 61.46
1.81 -19.19 61.56
1.82 -19.28 61.67
1.83 -19.34 61.77
1.83 -19.41 61.87
1.84 -19.48 61.98
1.85 -19.53 62.08
1.85 -19.60 62.18
1.86 -19.72 62.29
1.87 -19.74 62.39
1.88 -19.86 62.49
1.88 -19.91 62.60
1.88 -19.91 62.70
1.89 -20.04 62.80
1.90 -20.07 62.91
1.91 -20.16 63.01
1.92 -20.28 63.11
1.93 -20.40 63.22
1.94 -20.50 63.32
1.94 -20.52 63.42
1.94 -20.53 63.53
1.95 -20.64 63.63
1.96 -20.71 63.73
1.97 -20.85 63.84
1.98 -20.96 63.94
1.98 -20.98 64.05
1.99 -21.05 64.15
2.01 -21.25 64.25
2.02 -21.32 64.36
2.04 -21.58 64.46
2.04 -21.61 64.56
2.05 -21.71 64.67
2.06 -21.76 64.77
2.06 -21.80 64.87
2.08 -21.98 64.98
2.08 -22.04 65.08
2.08 -22.04 65.18
2.11 -22.31 65.29
2.09 -22.15 65.39
2.40 -25.43 66.43
2.43 -25.68 66.53
2.44 -25.78 66.63
2.42 -25.65 66.74
2.42 -25.61 66.84
2.41 -25.49 66.94
2.41 -25.50 67.05
2.41 -25.45 67.15
2.41 -25.47 67.25
2.42 -25.55 67.36
2.41 -25.51 67.46
2.41 -25.53 67.56
2.41 -25.48 67.67
2.41 -25.44 67.77
2.40 -25.42 67.87
2.41 -25.51 67.98
2.41 -25.49 68.08
2.42 -25.58 68.18
2.42 -25.57 68.29
2.41 -25.50 68.39
2.41 -25.51 68.49
2.40 -25.44 68.60
2.41 -25.45 68.70
2.42 -25.57 68.80
2.42 -25.59 68.91
2.41 -25.51 69.01
2.40 -25.44 69.12
2.41 -25.49 69.22
2.41 -25.49 69.32
2.41 -25.48 69.43
2.40 -25.42 69.53
2.40 -25.34 69.63
2.40 -25.43 69.74
2.41 -25.49 69.84
2.42 -25.64 69.94
2.42 -25.57 70.05
2.41 -25.49 70.15
2.41 -25.49 70.25
2.41 -25.49 70.36
2.43 -25.66 71.49
2.43 -25.66 71.60
2.43 -25.72 71.70
2.43 -25.71 71.81
2.43 -25.72 71.91
2.43 -25.69 72.01
2.39 -25.24 72.12
2.38 -25.23 72.22
2.38 -25.16 72.32
2.38 -25.16 72.43
2.38 -25.22 72.53
2.38 -25.22 72.63
2.39 -25.28 72.74
2.37 -25.11 72.84
2.37 -25.11 72.94
2.36 -25.00 73.05
2.37 -25.10 73.15
2.37 -25.10 73.25
2.38 -25.18 73.36
2.38 -25.19 73.46
2.39 -25.33 73.56
2.39 -25.33 73.67
2.37 -25.12 73.77
2.38 -25.13 73.87
2.37 -25.08 75.01
2.37 -25.08 75.12
2.37 -25.07 75.22
2.37 -25.07 75.32
2.36 -25.00 75.43
2.37 -25.02 75.53
2.35 -24.91 75.63
2.36 -24.93 75.74
2.35 -24.82 75.84
2.35 -24.87 75.94
2.44 -25.86 76.25
2.45 -25.87 76.36
2.44 -25.86 76.46
2.44 -25.83 76.56
2.44 -25.85 76.67
2.44 -25.81 76.77
2.37 -25.11 77.70
2.38 -25.13 77.81
2.38 -25.19 77.91
2.38 -25.19 78.01
2.38 -25.17 78.12
2.37 -25.12 78.22
2.37 -25.10 78.32
2.37 -25.10 78.43
2.38 -25.14 78.53
2.37 -25.12 78.63
2.39 -25.31 78.74
2.39 -25.31 78.84
2.40 -25.43 78.94
2.40 -25.42 79.05
2.42 -25.57 79.15
2.41 -25.55 79.25
2.42 -25.59 79.36
2.42 -25.55 79.46
2.39 -25.32 79.57
2.39 -25.26 79.67
2.39 -25.26 79.77
2.39 -25.28 79.88
2.38 -25.23 79.98
2.38 -25.17 80.08
2.38 -25.22 80.19
2.39 -25.24 80.29
2.39 -25.25 80.39
2.39 -25.31 80.50
2.36 -25.01 80.60
2.36 -25.00 80.70
2.39 -25.26 80.81
2.39 -25.25 80.91
2.39 -25.25 81.01
2.39 -25.26 81.12
2.39 -25.27 81.22
2.38 -25.22 81.32
2.33 -24.64 81.43
2.33 -24.65 81.53
2.42 -25.62 81.84
2.42 -25.63 81.94
2.43 -25.69 82.05
2.43 -25.69 82.15
2.43 -25.68 82.26
2.42 -25.62 82.36
2.42 -25.62 82.46
2.42 -25.63 82.88
2.42 -25.62 82.98
2.39 -25.29 83.08
2.39 -25.27 83.19
2.38 -25.20 83.29
2.38 -25.20 83.39
2.38 -25.20 83.50
2.38 -25.21 83.60
2.38 -25.23 83.70
2.39 -25.31 83.81
2.40 -25.39 83.91
2.39 -25.31 84.01
2.36 -24.97 84.12
2.35 -24.90 84.22
2.34 -24.80 84.32
2.35 -24.81 84.43
2.35 -24.91 84.74
2.35 -24.91 84.84
2.38 -25.20 84.95
2.38 -25.20 85.05
2.38 -25.20 85.15
2.38 -25.20 85.26
2.38 -25.20 85.36
2.38 -25.22 85.46
2.38 -25.22 85.57
2.38 -25.22 85.67
2.38 -25.23 85.77
2.38 -25.23 85.88
2.39 -25.24 85.98
2.39 -25.28 86.08
2.39 -25.29 86.19
2.39 -25.28 86.29
2.39 -25.30 86.39
2.39 -25.29 86.50
2.39 -25.30 86.60
2.39 -25.32 86.70
2.39 -25.29 86.81
2.40 -25.37 86.91
2.40 -25.36 87.01
2.39 -25.24 87.12
2.38 -25.23 87.22
2.38 -25.22 87.33
2.39 -25.25 87.43
2.39 -25.31 87.53
2.40 -25.37 87.64
2.40 -25.44 87.74
2.40 -25.38 87.84
2.40 -25.37 87.95
2.39 -25.31 88.05
2.39 -25.28 88.15
2.38 -25.21 88.26
2.38 -25.21 88.36
2.38 -25.20 88.46
2.38 -25.17 88.57
2.38 -25.13 88.67
2.37 -25.12 88.77
2.37 -25.11 88.88
2.37 -25.12 88.98
2.38 -25.21 89.08
2.39 -25.27 89.19
2.39 -25.27 89.29
2.39 -25.25 89.39
